depth distance toa
18.049 14.000000 142.000000 2095
18.049 34.000000 119.000000 2095
18.049 43.000000 108.000000 2095
18.049 64.000000 97.000000 2095
18.049 85.000000 75.000000 2095
18.049 99.000000 73.000000 2095
18.049 109.000000 73.000000 2095
18.049 132.000000 55.000000 2095
18.049 141.000000 56.000000 2095
18.049 145.000000 56.000000 2095
18.049 185.000000 58.000000 2095
18.049 78.000000 75.000000 2095
18.049 94.000000 74.000000 2095
18.049 135.000000 56.000000 2095
18.049 153.000000 56.000000 2095
18.049 138.000000 56.000000 2095
15.241 13.000000 140.000000 2096
15.241 37.000000 113.000000 2096
15.241 45.000000 110.000000 2096
15.241 67.000000 99.000000 2096
15.241 83.000000 67.000000 2096
15.241 101.000000 67.000000 2096
15.241 111.000000 67.000000 2096
15.241 131.000000 66.000000 2096
15.241 146.000000 52.000000 2096
15.241 145.000000 52.000000 2096
15.241 71.000000 102.000000 2096
15.241 81.000000 68.000000 2096
15.241 93.000000 67.000000 2096
15.241 136.000000 51.000000 2096
15.241 152.000000 53.000000 2096
15.241 139.000000 51.000000 2096
15.410 47.000000 108.000000 2098
15.410 40.000000 107.000000 2098
15.410 60.000000 104.000000 2098
15.410 76.000000 68.000000 2098
15.410 71.000000 98.000000 2098
15.410 72.000000 95.000000 2098
15.410 98.000000 67.000000 2098
15.410 115.000000 67.000000 2098
15.410 149.000000 52.000000 2098
15.410 61.000000 100.000000 2098
15.410 110.000000 67.000000 2098
15.410 140.000000 52.000000 2098
15.410 124.000000 66.000000 2098
15.410 94.000000 68.000000 2098
15.410 99.000000 67.000000 2098
15.410 144.000000 52.000000 2098
15.410 164.000000 53.000000 2098
4.564 40.000000 86.000000 2099
4.564 48.000000 91.000000 2099
4.564 62.000000 91.000000 2099
4.564 71.000000 84.000000 2099
4.564 63.000000 87.000000 2099
4.564 77.000000 82.000000 2099
4.564 97.000000 88.000000 2099
4.564 243.000000 54.000000 2099
4.564 72.000000 85.000000 2099
83.522 11.000000 169.000000 2106
83.522 34.000000 153.000000 2106
83.522 62.000000 136.000000 2106
83.522 27.000000 160.000000 2106
83.522 85.000000 125.000000 2106
83.522 144.000000 106.000000 2106
83.522 113.000000 115.000000 2106
83.522 67.000000 133.000000 2106
83.522 70.000000 132.000000 2106
83.522 93.000000 121.000000 2106
83.522 49.000000 145.000000 2106
83.522 54.000000 140.000000 2106
5.796 62.000000 89.000000 2113
5.796 39.000000 89.000000 2113
5.796 61.000000 95.000000 2113
5.796 38.000000 93.000000 2113
5.796 107.000000 89.000000 2113
5.796 112.000000 87.000000 2113
5.796 126.000000 85.000000 2113
5.796 118.000000 87.000000 2113
5.796 92.000000 89.000000 2113
5.796 70.000000 91.000000 2113
16.386 14.000000 139.000000 2115
16.386 32.000000 117.000000 2115
16.386 41.000000 112.000000 2115
16.386 77.000000 71.000000 2115
16.386 79.000000 71.000000 2115
16.386 85.000000 70.000000 2115
16.386 109.000000 69.000000 2115
16.386 93.000000 70.000000 2115
16.386 140.000000 53.000000 2115
16.386 131.000000 53.000000 2115
16.386 204.000000 57.000000 2115
16.386 63.000000 100.000000 2115
16.386 100.000000 69.000000 2115
16.386 151.000000 54.000000 2115
16.386 97.000000 69.000000 2115
16.386 114.000000 69.000000 2115
16.386 121.000000 68.000000 2115
16.386 126.000000 69.000000 2115
16.386 137.000000 53.000000 2115
16.386 185.000000 56.000000 2115
16.386 72.000000 102.000000 2115
16.386 135.000000 53.000000 2115
16.386 144.000000 53.000000 2115
16.386 153.000000 54.000000 2115
16.386 71.000000 102.000000 2115
16.386 80.000000 71.000000 2115
16.386 194.000000 56.000000 2115
43.765 39.000000 130.000000 2117
43.765 42.000000 124.000000 2117
43.765 39.000000 130.000000 2117
43.765 56.000000 115.000000 2117
43.765 63.000000 109.000000 2117
43.765 80.000000 98.000000 2117
43.765 101.000000 90.000000 2117
43.765 99.000000 91.000000 2117
43.765 99.000000 91.000000 2117
43.765 111.000000 87.000000 2117
43.765 172.000000 79.000000 2117
43.765 26.000000 145.000000 2117
43.765 74.000000 102.000000 2117
43.765 79.000000 98.000000 2117
43.765 93.000000 93.000000 2117
43.765 115.000000 86.000000 2117
43.765 118.000000 86.000000 2117
43.765 37.000000 132.000000 2117
43.765 56.000000 115.000000 2117
43.765 159.000000 80.000000 2117
43.765 156.000000 80.000000 2117
43.765 57.000000 111.000000 2117
43.765 128.000000 83.000000 2117
43.765 105.000000 89.000000 2117
43.765 123.000000 84.000000 2117
43.765 134.000000 83.000000 2117
43.765 186.000000 78.000000 2117
43.765 149.000000 82.000000 2117
43.765 186.000000 79.000000 2117
18.604 14.000000 143.000000 2119
18.604 32.000000 121.000000 2119
18.604 41.000000 109.000000 2119
18.604 77.000000 77.000000 2119
18.604 85.000000 76.000000 2119
18.604 109.000000 74.000000 2119
18.604 93.000000 76.000000 2119
18.604 140.000000 57.000000 2119
18.604 131.000000 56.000000 2119
18.604 137.000000 56.000000 2119
18.604 204.000000 60.000000 2119
18.604 62.000000 95.000000 2119
18.604 100.000000 75.000000 2119
18.604 144.000000 57.000000 2119
18.604 97.000000 75.000000 2119
18.604 121.000000 74.000000 2119
18.604 184.000000 59.000000 2119
18.604 72.000000 78.000000 2119
18.604 135.000000 56.000000 2119
18.604 79.000000 77.000000 2119
18.604 113.000000 75.000000 2119
18.028 22.000000 131.000000 2122
18.028 55.000000 104.000000 2122
18.028 59.000000 102.000000 2122
18.028 82.000000 75.000000 2122
18.028 75.000000 76.000000 2122
18.028 88.000000 74.000000 2122
18.028 93.000000 74.000000 2122
18.028 88.000000 74.000000 2122
18.028 120.000000 72.000000 2122
18.028 125.000000 75.000000 2122
18.028 134.000000 56.000000 2122
18.028 138.000000 56.000000 2122
18.028 148.000000 56.000000 2122
18.028 160.000000 57.000000 2122
18.028 172.000000 57.000000 2122
18.028 176.000000 58.000000 2122
18.028 187.000000 58.000000 2122
18.028 204.000000 59.000000 2122
18.028 204.000000 58.000000 2122
18.028 159.000000 57.000000 2122
18.028 43.000000 108.000000 2122
18.028 104.000000 73.000000 2122
18.028 17.000000 139.000000 2122
18.028 114.000000 73.000000 2122
18.028 149.000000 56.000000 2122
18.028 149.000000 56.000000 2122
18.028 157.000000 57.000000 2122
18.028 163.000000 57.000000 2122
18.028 212.000000 59.000000 2122
18.028 249.000000 61.000000 2122
18.028 188.000000 58.000000 2122
25.953 40.000000 118.000000 2130
25.953 39.000000 115.000000 2130
25.953 69.000000 95.000000 2130
25.953 134.000000 64.000000 2130
25.953 94.000000 89.000000 2130
25.953 62.000000 102.000000 2130
19.546 13.000000 146.000000 2134
19.546 34.000000 114.000000 2134
19.546 43.000000 110.000000 2134
19.546 65.000000 83.000000 2134
19.546 84.000000 80.000000 2134
19.546 100.000000 78.000000 2134
19.546 110.000000 79.000000 2134
19.546 128.000000 57.000000 2134
19.546 131.000000 57.000000 2134
19.546 138.000000 57.000000 2134
19.546 142.000000 58.000000 2134
19.546 185.000000 60.000000 2134
19.546 71.000000 82.000000 2134
19.546 79.000000 80.000000 2134
19.546 93.000000 79.000000 2134
19.546 136.000000 57.000000 2134
19.546 145.000000 58.000000 2134
19.546 204.000000 61.000000 2134
19.546 72.000000 82.000000 2134
19.546 81.000000 81.000000 2134
38.820 75.000000 96.000000 2135
38.820 63.000000 103.000000 2135
38.820 23.000000 144.000000 2135
38.820 51.000000 112.000000 2135
38.820 54.000000 112.000000 2135
38.820 93.000000 85.000000 2135
38.820 119.000000 81.000000 2135
30.868 25.000000 136.000000 2137
30.868 37.000000 125.000000 2137
30.868 48.000000 114.000000 2137
30.868 73.000000 99.000000 2137
30.868 87.000000 63.000000 2137
30.868 114.000000 62.000000 2137
30.868 118.000000 62.000000 2137
30.868 12.000000 160.000000 2137
30.868 47.000000 114.000000 2137
30.868 85.000000 64.000000 2137
30.868 95.000000 63.000000 2137
30.868 136.000000 62.000000 2137
30.868 141.000000 61.000000 2137
30.868 147.000000 62.000000 2137
30.868 108.000000 63.000000 2137
10.820 17.000000 125.000000 2138
10.820 15.000000 127.000000 2138
10.820 35.000000 108.000000 2138
10.820 45.000000 100.000000 2138
10.820 55.000000 97.000000 2138
10.820 65.000000 90.000000 2138
10.820 77.000000 93.000000 2138
10.820 80.000000 98.000000 2138
10.820 83.000000 90.000000 2138
10.820 109.000000 65.000000 2138
10.820 111.000000 64.000000 2138
10.820 145.000000 50.000000 2138
10.820 49.000000 99.000000 2138
15.372 18.000000 131.000000 2139
15.372 51.000000 106.000000 2139
15.372 40.000000 112.000000 2139
15.372 54.000000 102.000000 2139
15.372 78.000000 68.000000 2139
15.372 102.000000 67.000000 2139
15.372 177.000000 54.000000 2139
15.372 69.000000 99.000000 2139
21.401 37.000000 114.000000 2141
21.401 22.000000 128.000000 2141
21.401 31.000000 120.000000 2141
21.401 122.000000 59.000000 2141
21.401 42.000000 107.000000 2141
21.401 16.000000 143.000000 2141
21.401 97.000000 81.000000 2141
21.401 66.000000 92.000000 2141
16.035 13.000000 141.000000 2142
16.035 33.000000 116.000000 2142
16.035 41.000000 112.000000 2142
16.035 63.000000 100.000000 2142
16.035 78.000000 70.000000 2142
16.035 92.000000 69.000000 2142
16.035 100.000000 69.000000 2142
16.035 110.000000 68.000000 2142
16.035 130.000000 68.000000 2142
16.035 144.000000 53.000000 2142
16.035 152.000000 53.000000 2142
16.035 84.000000 69.000000 2142
16.035 114.000000 68.000000 2142
16.035 126.000000 68.000000 2142
16.035 136.000000 53.000000 2142
16.035 141.000000 53.000000 2142
16.035 155.000000 53.000000 2142
16.035 184.000000 55.000000 2142
16.035 72.000000 102.000000 2142
16.035 70.000000 102.000000 2142
16.035 80.000000 70.000000 2142
16.035 97.000000 69.000000 2142
16.035 121.000000 68.000000 2142
16.035 136.000000 53.000000 2142
16.035 135.000000 53.000000 2142
16.035 152.000000 53.000000 2142
16.035 205.000000 56.000000 2142
16.035 195.000000 55.000000 2142
19.604 14.000000 145.000000 2145
19.604 33.000000 115.000000 2145
19.604 42.000000 110.000000 2145
19.604 84.000000 80.000000 2145
19.604 100.000000 78.000000 2145
19.604 109.000000 79.000000 2145
19.604 127.000000 57.000000 2145
19.604 131.000000 57.000000 2145
19.604 141.000000 58.000000 2145
19.604 145.000000 58.000000 2145
19.604 71.000000 82.000000 2145
19.604 93.000000 79.000000 2145
19.604 98.000000 80.000000 2145
19.604 135.000000 58.000000 2145
19.604 137.000000 57.000000 2145
23.745 9.000000 160.000000 2150
23.745 37.000000 117.000000 2150
23.745 43.000000 110.000000 2150
23.745 49.000000 108.000000 2150
23.745 64.000000 97.000000 2150
23.745 88.000000 87.000000 2150
23.745 89.000000 87.000000 2150
23.745 97.000000 85.000000 2150
23.745 116.000000 61.000000 2150
23.745 119.000000 61.000000 2150
23.745 123.000000 61.000000 2150
23.745 22.000000 130.000000 2150
23.745 35.000000 119.000000 2150
23.745 105.000000 85.000000 2150
23.745 140.000000 62.000000 2150
23.745 105.000000 85.000000 2150
23.745 75.000000 90.000000 2150
7.181 19.000000 113.000000 2153
7.181 23.000000 108.000000 2153
7.181 38.000000 96.000000 2153
7.181 49.000000 95.000000 2153
7.181 48.000000 86.000000 2153
7.181 63.000000 90.000000 2153
7.181 49.000000 90.000000 2153
7.181 123.000000 90.000000 2153
7.181 152.000000 48.000000 2153
7.181 41.000000 90.000000 2153
7.181 19.000000 113.000000 2153
7.181 115.000000 92.000000 2153
7.181 63.000000 90.000000 2153
14.000 27.000000 118.000000 2157
14.000 30.000000 116.000000 2157
14.000 41.000000 109.000000 2157
14.000 60.000000 97.000000 2157
14.000 66.000000 102.000000 2157
14.000 87.000000 67.000000 2157
14.000 145.000000 54.000000 2157
14.000 154.000000 54.000000 2157
14.000 58.000000 104.000000 2157
14.000 89.000000 68.000000 2157
14.000 124.000000 71.000000 2157
14.000 32.000000 116.000000 2157
14.000 94.000000 67.000000 2157
14.000 120.000000 70.000000 2157
14.000 121.000000 70.000000 2157
14.000 139.000000 53.000000 2157
15.586 60.000000 100.000000 2158
15.586 61.000000 100.000000 2158
15.586 50.000000 107.000000 2158
15.586 45.000000 109.000000 2158
15.586 107.000000 67.000000 2158
15.586 122.000000 67.000000 2158
15.586 134.000000 52.000000 2158
15.586 109.000000 67.000000 2158
19.398 15.000000 143.000000 2160
19.398 33.000000 114.000000 2160
19.398 43.000000 110.000000 2160
19.398 78.000000 80.000000 2160
19.398 85.000000 80.000000 2160
19.398 108.000000 78.000000 2160
19.398 94.000000 78.000000 2160
19.398 141.000000 57.000000 2160
19.398 132.000000 57.000000 2160
19.398 138.000000 57.000000 2160
19.398 64.000000 83.000000 2160
19.398 70.000000 81.000000 2160
19.398 99.000000 78.000000 2160
19.398 134.000000 58.000000 2160
19.398 146.000000 58.000000 2160
19.398 81.000000 81.000000 2160
19.398 72.000000 81.000000 2160
19.398 186.000000 60.000000 2160
14.953 39.000000 107.000000 2163
14.953 44.000000 105.000000 2163
14.953 57.000000 101.000000 2163
14.953 60.000000 101.000000 2163
14.953 88.000000 67.000000 2163
14.953 91.000000 67.000000 2163
14.953 106.000000 66.000000 2163
14.953 140.000000 51.000000 2163
14.953 51.000000 107.000000 2163
20.566 13.000000 147.000000 2170
20.566 34.000000 116.000000 2170
20.566 84.000000 82.000000 2170
20.566 100.000000 81.000000 2170
20.566 110.000000 80.000000 2170
20.566 131.000000 58.000000 2170
20.566 142.000000 59.000000 2170
20.566 93.000000 82.000000 2170
20.566 138.000000 59.000000 2170
19.645 13.000000 147.000000 2171
19.645 32.000000 115.000000 2171
19.645 62.000000 86.000000 2171
19.645 78.000000 81.000000 2171
19.645 101.000000 78.000000 2171
19.645 129.000000 58.000000 2171
19.645 143.000000 58.000000 2171
19.645 83.000000 80.000000 2171
19.645 135.000000 58.000000 2171
19.645 141.000000 59.000000 2171
19.645 205.000000 61.000000 2171
9.383 22.000000 113.000000 2176
9.383 28.000000 109.000000 2176
9.383 70.000000 95.000000 2176
9.383 92.000000 96.000000 2176
9.383 101.000000 89.000000 2176
9.383 133.000000 65.000000 2176
9.383 140.000000 65.000000 2176
9.383 196.000000 54.000000 2176
9.383 63.000000 95.000000 2176
9.383 149.000000 50.000000 2176
9.383 160.000000 51.000000 2176
9.383 191.000000 53.000000 2176
9.383 128.000000 65.000000 2176
13.933 131.000000 70.000000 2178
13.933 80.000000 98.000000 2178
13.933 79.000000 100.000000 2178
13.933 50.000000 102.000000 2178
13.933 107.000000 69.000000 2178
13.933 39.000000 111.000000 2178
13.933 86.000000 97.000000 2178
24.211 5.000000 169.000000 2180
24.211 41.000000 110.000000 2180
24.211 58.000000 101.000000 2180
24.211 75.000000 93.000000 2180
24.211 94.000000 87.000000 2180
24.211 100.000000 86.000000 2180
24.211 101.000000 86.000000 2180
24.211 98.000000 87.000000 2180
24.211 114.000000 62.000000 2180
24.211 127.000000 62.000000 2180
24.211 36.000000 119.000000 2180
24.211 49.000000 108.000000 2180
24.211 27.000000 126.000000 2180
24.211 83.000000 91.000000 2180
24.211 155.000000 63.000000 2180
24.211 118.000000 61.000000 2180
18.990 12.000000 149.000000 2188
18.990 32.000000 121.000000 2188
18.990 39.000000 111.000000 2188
18.990 61.000000 96.000000 2188
18.990 82.000000 78.000000 2188
18.990 79.000000 79.000000 2188
18.990 90.000000 77.000000 2188
18.990 134.000000 56.000000 2188
18.990 128.000000 56.000000 2188
18.990 141.000000 57.000000 2188
18.990 142.000000 57.000000 2188
18.990 207.000000 60.000000 2188
13.652 18.000000 129.000000 2203
13.652 32.000000 115.000000 2203
13.652 68.000000 99.000000 2203
13.652 81.000000 100.000000 2203
13.652 92.000000 68.000000 2203
13.652 113.000000 70.000000 2203
13.652 27.000000 118.000000 2203
13.652 57.000000 104.000000 2203
13.652 49.000000 98.000000 2203
13.652 78.000000 100.000000 2203
13.652 121.000000 70.000000 2203
13.652 161.000000 54.000000 2203
13.652 167.000000 55.000000 2203
13.652 193.000000 57.000000 2203
13.652 112.000000 68.000000 2203
13.652 173.000000 56.000000 2203
13.652 153.000000 54.000000 2203
13.652 40.000000 110.000000 2203
13.652 85.000000 94.000000 2203
13.652 45.000000 99.000000 2203
13.652 65.000000 96.000000 2203
13.652 108.000000 69.000000 2203
13.652 132.000000 70.000000 2203
13.652 24.000000 121.000000 2203
13.652 14.000000 137.000000 2203
13.652 92.000000 68.000000 2203
20.331 25.000000 130.000000 2204
20.331 57.000000 95.000000 2204
20.331 75.000000 85.000000 2204
20.331 65.000000 87.000000 2204
20.331 130.000000 58.000000 2204
20.331 58.000000 94.000000 2204
20.331 83.000000 82.000000 2204
20.331 140.000000 58.000000 2204
23.961 13.000000 152.000000 2213
23.961 25.000000 126.000000 2213
23.961 30.000000 123.000000 2213
23.961 37.000000 118.000000 2213
23.961 105.000000 85.000000 2213
23.961 108.000000 84.000000 2213
23.961 116.000000 61.000000 2213
23.961 70.000000 93.000000 2213
14.096 30.000000 116.000000 2214
14.096 39.000000 111.000000 2214
14.096 42.000000 109.000000 2214
14.096 52.000000 105.000000 2214
14.096 53.000000 106.000000 2214
14.096 68.000000 102.000000 2214
14.096 85.000000 67.000000 2214
14.096 39.000000 110.000000 2214
14.096 49.000000 107.000000 2214
14.096 59.000000 101.000000 2214
14.096 69.000000 102.000000 2214
14.096 81.000000 95.000000 2214
14.096 85.000000 94.000000 2214
14.096 102.000000 70.000000 2214
14.096 173.000000 52.000000 2214
14.096 131.000000 70.000000 2214
14.096 191.000000 53.000000 2214
14.096 77.000000 98.000000 2214
21.923 17.000000 142.000000 2228
21.923 22.000000 128.000000 2228
21.923 27.000000 122.000000 2228
21.923 45.000000 107.000000 2228
21.923 75.000000 88.000000 2228
21.923 77.000000 88.000000 2228
21.923 117.000000 59.000000 2228
21.923 81.000000 86.000000 2228
43.999 26.000000 145.000000 2229
43.999 20.000000 151.000000 2229
43.999 36.000000 132.000000 2229
43.999 51.000000 117.000000 2229
43.999 56.000000 114.000000 2229
43.999 39.000000 130.000000 2229
43.999 48.000000 122.000000 2229
43.999 87.000000 95.000000 2229
43.999 83.000000 96.000000 2229
43.999 94.000000 93.000000 2229
43.999 90.000000 93.000000 2229
43.999 99.000000 91.000000 2229
43.999 97.000000 91.000000 2229
43.999 112.000000 88.000000 2229
43.999 103.000000 90.000000 2229
43.999 116.000000 86.000000 2229
43.999 140.000000 82.000000 2229
43.999 59.000000 111.000000 2229
43.999 155.000000 81.000000 2229
43.999 176.000000 79.000000 2229
43.999 143.000000 83.000000 2229
43.999 140.000000 82.000000 2229
43.999 242.000000 76.000000 2229
43.999 95.000000 93.000000 2229
26.279 18.000000 146.000000 2232
26.279 32.000000 124.000000 2232
26.279 37.000000 120.000000 2232
26.279 55.000000 104.000000 2232
26.279 60.000000 103.000000 2232
26.279 65.000000 98.000000 2232
26.279 74.000000 95.000000 2232
26.279 77.000000 95.000000 2232
26.279 79.000000 94.000000 2232
26.279 80.000000 94.000000 2232
26.279 83.000000 91.000000 2232
26.279 101.000000 89.000000 2232
26.279 50.000000 110.000000 2232
26.279 50.000000 110.000000 2232
26.279 57.000000 104.000000 2232
19.698 14.000000 144.000000 2233
19.698 30.000000 117.000000 2233
19.698 33.000000 116.000000 2233
19.698 34.000000 115.000000 2233
19.698 57.000000 97.000000 2233
19.698 62.000000 86.000000 2233
19.698 88.000000 79.000000 2233
19.698 129.000000 57.000000 2233
19.698 66.000000 83.000000 2233
19.698 66.000000 84.000000 2233
83.830 30.000000 157.000000 2237
83.830 36.000000 151.000000 2237
83.830 64.000000 136.000000 2237
83.830 54.000000 140.000000 2237
83.830 77.000000 129.000000 2237
83.830 76.000000 130.000000 2237
83.830 77.000000 129.000000 2237
83.830 90.000000 124.000000 2237
83.830 90.000000 124.000000 2237
83.830 126.000000 111.000000 2237
83.830 155.000000 104.000000 2237
83.830 54.000000 140.000000 2237
83.830 60.000000 138.000000 2237
23.933 10.000000 158.000000 2238
23.933 32.000000 120.000000 2238
23.933 39.000000 117.000000 2238
23.933 59.000000 101.000000 2238
23.933 76.000000 90.000000 2238
23.933 89.000000 87.000000 2238
23.933 91.000000 87.000000 2238
23.933 101.000000 85.000000 2238
23.933 103.000000 86.000000 2238
23.933 105.000000 86.000000 2238
23.933 119.000000 61.000000 2238
23.933 124.000000 61.000000 2238
23.933 122.000000 61.000000 2238
23.933 138.000000 63.000000 2238
23.933 24.000000 129.000000 2238
23.933 65.000000 97.000000 2238
23.933 63.000000 96.000000 2238
23.933 129.000000 62.000000 2238
21.252 76.000000 87.000000 2242
21.252 31.000000 118.000000 2242
21.252 6.000000 163.000000 2242
21.252 68.000000 87.000000 2242
21.252 61.000000 94.000000 2242
21.252 111.000000 80.000000 2242
21.252 117.000000 81.000000 2242
26.659 36.000000 122.000000 2243
26.659 41.000000 114.000000 2243
26.659 6.000000 167.000000 2243
26.659 69.000000 98.000000 2243
26.659 112.000000 64.000000 2243
16.338 14.000000 140.000000 2256
16.338 34.000000 116.000000 2256
16.338 42.000000 111.000000 2256
16.338 78.000000 71.000000 2256
16.338 84.000000 70.000000 2256
16.338 109.000000 69.000000 2256
16.338 93.000000 70.000000 2256
16.338 142.000000 53.000000 2256
16.338 131.000000 53.000000 2256
16.338 204.000000 56.000000 2256
16.338 64.000000 100.000000 2256
16.338 100.000000 69.000000 2256
16.338 115.000000 69.000000 2256
16.338 127.000000 68.000000 2256
16.338 138.000000 53.000000 2256
16.338 155.000000 55.000000 2256
16.338 71.000000 102.000000 2256
16.338 72.000000 102.000000 2256
16.338 81.000000 70.000000 2256
16.338 98.000000 69.000000 2256
16.338 122.000000 68.000000 2256
16.338 135.000000 53.000000 2256
16.338 136.000000 53.000000 2256
16.338 153.000000 54.000000 2256
16.338 145.000000 53.000000 2256
16.338 153.000000 54.000000 2256
16.338 105.000000 69.000000 2256
16.338 194.000000 56.000000 2256
16.338 185.000000 56.000000 2256
19.660 13.000000 146.000000 2258
19.660 33.000000 115.000000 2258
19.660 78.000000 81.000000 2258
19.660 84.000000 80.000000 2258
19.660 93.000000 79.000000 2258
19.660 109.000000 79.000000 2258
19.660 131.000000 57.000000 2258
19.660 136.000000 58.000000 2258
19.660 141.000000 59.000000 2258
19.660 42.000000 110.000000 2258
19.660 144.000000 58.000000 2258
29.767 28.000000 131.000000 2264
29.767 3.000000 175.000000 2264
29.767 62.000000 105.000000 2264
29.767 40.000000 122.000000 2264
29.767 48.000000 115.000000 2264
29.767 69.000000 101.000000 2264
59.482 33.000000 144.000000 2265
59.482 37.000000 141.000000 2265
59.482 55.000000 128.000000 2265
59.482 63.000000 122.000000 2265
59.482 90.000000 108.000000 2265
59.482 93.000000 106.000000 2265
59.482 100.000000 105.000000 2265
59.482 43.000000 135.000000 2265
59.482 80.000000 113.000000 2265
59.482 92.000000 108.000000 2265
59.482 117.000000 99.000000 2265
59.482 137.000000 95.000000 2265
59.482 138.000000 95.000000 2265
59.482 148.000000 93.000000 2265
59.482 56.000000 125.000000 2265
59.482 29.000000 146.000000 2265
59.482 97.000000 105.000000 2265
59.482 142.000000 93.000000 2265
59.482 237.000000 83.000000 2265
59.482 13.000000 163.000000 2265
59.482 40.000000 140.000000 2265
59.482 114.000000 99.000000 2265
59.482 143.000000 93.000000 2265
20.712 28.000000 120.000000 2282
20.712 32.000000 118.000000 2282
20.712 52.000000 99.000000 2282
20.712 68.000000 87.000000 2282
20.712 89.000000 83.000000 2282
20.712 77.000000 85.000000 2282
20.712 85.000000 83.000000 2282
20.712 97.000000 81.000000 2282
20.712 86.000000 83.000000 2282
20.712 121.000000 58.000000 2282
20.712 128.000000 58.000000 2282
20.712 133.000000 58.000000 2282
20.712 118.000000 79.000000 2282
20.712 152.000000 60.000000 2282
20.712 176.000000 61.000000 2282
20.712 151.000000 59.000000 2282
20.712 148.000000 59.000000 2282
20.712 182.000000 61.000000 2282
18.743 13.000000 145.000000 2283
18.743 32.000000 120.000000 2283
18.743 41.000000 110.000000 2283
18.743 62.000000 95.000000 2283
18.743 84.000000 76.000000 2283
18.743 78.000000 77.000000 2283
18.743 92.000000 76.000000 2283
18.743 136.000000 56.000000 2283
18.743 72.000000 78.000000 2283
18.743 96.000000 76.000000 2283
18.743 100.000000 76.000000 2283
18.743 110.000000 75.000000 2283
18.743 113.000000 75.000000 2283
18.743 121.000000 74.000000 2283
18.743 126.000000 74.000000 2283
18.743 130.000000 56.000000 2283
18.743 136.000000 56.000000 2283
18.743 141.000000 57.000000 2283
18.743 143.000000 57.000000 2283
18.743 152.000000 58.000000 2283
18.743 70.000000 79.000000 2283
18.743 184.000000 59.000000 2283
18.743 79.000000 77.000000 2283
18.743 205.000000 60.000000 2283
18.743 152.000000 58.000000 2283
18.743 195.000000 59.000000 2283
19.523 95.000000 79.000000 2286
19.523 94.000000 79.000000 2286
19.523 95.000000 79.000000 2286
19.523 103.000000 78.000000 2286
19.523 119.000000 77.000000 2286
19.523 129.000000 58.000000 2286
19.523 130.000000 57.000000 2286
19.523 155.000000 59.000000 2286
19.523 7.000000 160.000000 2286
19.523 28.000000 118.000000 2286
19.523 33.000000 114.000000 2286
19.523 43.000000 110.000000 2286
19.523 50.000000 103.000000 2286
19.523 61.000000 89.000000 2286
19.523 104.000000 78.000000 2286
19.523 100.000000 78.000000 2286
19.523 123.000000 78.000000 2286
19.523 134.000000 58.000000 2286
19.523 62.000000 85.000000 2286
19.523 99.000000 78.000000 2286
19.523 91.000000 79.000000 2286
19.523 104.000000 78.000000 2286
19.523 135.000000 58.000000 2286
19.523 75.000000 80.000000 2286
19.523 81.000000 81.000000 2286
19.523 182.000000 60.000000 2286
29.931 29.000000 130.000000 2289
29.931 30.000000 129.000000 2289
29.931 42.000000 116.000000 2289
29.931 45.000000 115.000000 2289
29.931 55.000000 111.000000 2289
29.931 93.000000 60.000000 2289
29.931 95.000000 61.000000 2289
29.931 122.000000 60.000000 2289
29.931 136.000000 60.000000 2289
29.931 79.000000 97.000000 2289
6.716 40.000000 100.000000 2292
6.716 29.000000 96.000000 2292
6.716 44.000000 94.000000 2292
6.716 45.000000 99.000000 2292
6.716 59.000000 93.000000 2292
6.716 76.000000 95.000000 2292
6.716 80.000000 87.000000 2292
6.716 87.000000 87.000000 2292
6.716 90.000000 87.000000 2292
6.716 101.000000 94.000000 2292
6.716 164.000000 50.000000 2292
6.716 129.000000 62.000000 2292
4.418 27.000000 100.000000 2304
4.418 23.000000 94.000000 2304
4.418 35.000000 92.000000 2304
4.418 62.000000 84.000000 2304
4.418 73.000000 90.000000 2304
4.418 78.000000 88.000000 2304
4.418 122.000000 86.000000 2304
4.418 51.000000 87.000000 2304
4.418 101.000000 93.000000 2304
4.418 28.000000 92.000000 2304
4.418 108.000000 88.000000 2304
4.418 140.000000 60.000000 2304
4.418 205.000000 51.000000 2304
4.418 189.000000 50.000000 2304
4.418 206.000000 52.000000 2304
15.639 90.000000 68.000000 2306
15.639 16.000000 136.000000 2306
15.639 40.000000 111.000000 2306
15.639 59.000000 104.000000 2306
15.639 61.000000 100.000000 2306
15.639 113.000000 67.000000 2306
15.639 133.000000 51.000000 2306
15.639 98.000000 68.000000 2306
15.639 25.000000 123.000000 2306
15.639 17.000000 134.000000 2306
23.881 25.000000 126.000000 2307
23.881 23.000000 130.000000 2307
23.881 78.000000 89.000000 2307
23.881 80.000000 90.000000 2307
23.881 78.000000 90.000000 2307
23.881 101.000000 85.000000 2307
23.881 112.000000 61.000000 2307
23.881 119.000000 61.000000 2307
23.881 150.000000 63.000000 2307
23.881 37.000000 118.000000 2307
23.881 53.000000 103.000000 2307
23.881 77.000000 92.000000 2307
23.881 115.000000 61.000000 2307
23.881 117.000000 61.000000 2307
23.881 138.000000 62.000000 2307
23.881 16.000000 148.000000 2307
23.881 54.000000 102.000000 2307
23.881 89.000000 88.000000 2307
21.963 26.000000 124.000000 2311
21.963 48.000000 106.000000 2311
21.963 65.000000 91.000000 2311
21.963 70.000000 91.000000 2311
21.963 72.000000 89.000000 2311
21.963 82.000000 86.000000 2311
21.963 82.000000 86.000000 2311
21.963 95.000000 84.000000 2311
21.963 93.000000 84.000000 2311
21.963 99.000000 84.000000 2311
21.963 103.000000 82.000000 2311
21.963 107.000000 82.000000 2311
21.963 117.000000 59.000000 2311
21.963 116.000000 81.000000 2311
21.963 134.000000 60.000000 2311
21.963 136.000000 60.000000 2311
21.963 135.000000 60.000000 2311
21.963 25.000000 125.000000 2311
21.963 35.000000 117.000000 2311
21.963 38.000000 116.000000 2311
21.963 42.000000 108.000000 2311
21.963 50.000000 101.000000 2311
21.963 66.000000 92.000000 2311
21.963 193.000000 63.000000 2311
21.963 112.000000 82.000000 2311
22.240 6.000000 165.000000 2313
22.240 39.000000 111.000000 2313
22.240 38.000000 116.000000 2313
22.240 36.000000 116.000000 2313
22.240 65.000000 92.000000 2313
22.240 86.000000 86.000000 2313
22.240 89.000000 84.000000 2313
22.240 96.000000 84.000000 2313
22.240 113.000000 83.000000 2313
22.240 135.000000 60.000000 2313
22.240 99.000000 84.000000 2313
22.240 109.000000 82.000000 2313
22.240 129.000000 60.000000 2313
22.240 110.000000 82.000000 2313
22.240 126.000000 60.000000 2313
23.331 79.000000 89.000000 2315
23.331 74.000000 90.000000 2315
23.331 101.000000 85.000000 2315
23.331 115.000000 60.000000 2315
23.331 121.000000 61.000000 2315
23.331 126.000000 61.000000 2315
23.331 135.000000 62.000000 2315
23.331 31.000000 121.000000 2315
23.331 41.000000 111.000000 2315
23.331 69.000000 93.000000 2315
23.331 164.000000 63.000000 2315
23.331 114.000000 60.000000 2315
19.024 15.000000 144.000000 2320
19.024 25.000000 129.000000 2320
19.024 33.000000 115.000000 2320
19.024 33.000000 115.000000 2320
19.024 52.000000 101.000000 2320
19.024 55.000000 100.000000 2320
19.024 55.000000 101.000000 2320
19.024 67.000000 79.000000 2320
19.024 68.000000 80.000000 2320
19.024 71.000000 79.000000 2320
19.024 84.000000 77.000000 2320
19.024 89.000000 77.000000 2320
19.024 89.000000 77.000000 2320
19.024 128.000000 56.000000 2320
19.024 143.000000 57.000000 2320
19.024 48.000000 103.000000 2320
19.024 133.000000 57.000000 2320
19.024 20.000000 134.000000 2320
19.024 8.000000 157.000000 2320
19.024 97.000000 76.000000 2320
21.841 14.000000 148.000000 2325
21.841 25.000000 124.000000 2325
21.841 32.000000 119.000000 2325
21.841 38.000000 115.000000 2325
21.841 104.000000 82.000000 2325
21.841 107.000000 83.000000 2325
21.841 115.000000 81.000000 2325
21.841 126.000000 59.000000 2325
21.841 142.000000 61.000000 2325
21.841 68.000000 91.000000 2325
21.841 129.000000 60.000000 2325
21.841 93.000000 84.000000 2325
21.841 101.000000 82.000000 2325
22.113 28.000000 122.000000 2331
22.113 34.000000 118.000000 2331
22.113 37.000000 117.000000 2331
22.113 50.000000 106.000000 2331
22.113 50.000000 101.000000 2331
22.113 52.000000 100.000000 2331
22.113 56.000000 97.000000 2331
22.113 58.000000 95.000000 2331
22.113 60.000000 96.000000 2331
22.113 57.000000 97.000000 2331
22.113 76.000000 88.000000 2331
22.113 81.000000 86.000000 2331
22.113 173.000000 62.000000 2331
22.113 59.000000 96.000000 2331
22.113 83.000000 85.000000 2331
22.113 81.000000 86.000000 2331
22.113 132.000000 59.000000 2331
22.113 16.000000 145.000000 2331
22.113 103.000000 82.000000 2331
22.113 80.000000 86.000000 2331
22.113 176.000000 62.000000 2331
22.113 177.000000 62.000000 2331
22.113 152.000000 61.000000 2331
22.113 212.000000 63.000000 2331
22.113 169.000000 62.000000 2331
13.872 18.000000 127.000000 2335
13.872 36.000000 112.000000 2335
13.872 27.000000 119.000000 2335
13.872 27.000000 120.000000 2335
13.872 61.000000 100.000000 2335
13.872 63.000000 99.000000 2335
13.872 73.000000 101.000000 2335
13.872 58.000000 97.000000 2335
13.872 90.000000 67.000000 2335
13.872 122.000000 70.000000 2335
13.872 96.000000 68.000000 2335
13.872 110.000000 69.000000 2335
13.872 104.000000 68.000000 2335
13.872 74.000000 101.000000 2335
13.872 170.000000 55.000000 2335
13.872 88.000000 67.000000 2335
13.872 114.000000 68.000000 2335
13.872 193.000000 57.000000 2335
13.872 44.000000 107.000000 2335
13.872 136.000000 53.000000 2335
13.872 144.000000 53.000000 2335
14.161 11.000000 143.000000 2338
14.161 19.000000 127.000000 2338
14.161 31.000000 116.000000 2338
14.161 48.000000 103.000000 2338
14.161 53.000000 106.000000 2338
14.161 60.000000 97.000000 2338
14.161 79.000000 95.000000 2338
14.161 80.000000 100.000000 2338
14.161 87.000000 68.000000 2338
14.161 106.000000 70.000000 2338
14.161 116.000000 70.000000 2338
14.161 143.000000 50.000000 2338
14.161 43.000000 104.000000 2338
14.161 44.000000 104.000000 2338
14.161 61.000000 97.000000 2338
14.161 142.000000 50.000000 2338
14.161 107.000000 69.000000 2338
14.161 191.000000 53.000000 2338
14.161 92.000000 68.000000 2338
14.161 122.000000 70.000000 2338
14.161 127.000000 71.000000 2338
14.161 133.000000 70.000000 2338
17.174 50.000000 104.000000 2340
17.174 89.000000 72.000000 2340
17.174 118.000000 70.000000 2340
17.174 28.000000 122.000000 2340
17.174 43.000000 107.000000 2340
17.174 11.000000 149.000000 2340
17.174 20.000000 131.000000 2340
26.005 17.000000 148.000000 2366
26.005 38.000000 116.000000 2366
26.005 34.000000 122.000000 2366
26.005 49.000000 110.000000 2366
26.005 45.000000 111.000000 2366
26.005 77.000000 94.000000 2366
26.005 99.000000 88.000000 2366
26.005 98.000000 88.000000 2366
26.005 125.000000 64.000000 2366
26.005 127.000000 64.000000 2366
26.005 144.000000 65.000000 2366
26.005 151.000000 64.000000 2366
26.005 109.000000 63.000000 2366
26.005 139.000000 64.000000 2366
26.005 92.000000 90.000000 2366
26.005 179.000000 66.000000 2366
26.005 183.000000 65.000000 2366
26.005 195.000000 66.000000 2366
26.005 195.000000 66.000000 2366
26.005 227.000000 66.000000 2366
26.005 159.000000 65.000000 2366
26.005 152.000000 65.000000 2366
26.005 199.000000 66.000000 2366
26.005 109.000000 63.000000 2366
26.005 167.000000 65.000000 2366
20.321 14.000000 145.000000 2372
20.321 27.000000 122.000000 2372
20.321 56.000000 99.000000 2372
20.321 57.000000 95.000000 2372
20.321 33.000000 115.000000 2372
20.321 127.000000 58.000000 2372
20.321 96.000000 80.000000 2372
20.321 107.000000 79.000000 2372
19.344 15.000000 143.000000 2373
19.344 30.000000 123.000000 2373
19.344 39.000000 111.000000 2373
19.344 61.000000 92.000000 2373
19.344 76.000000 80.000000 2373
19.344 85.000000 80.000000 2373
19.344 92.000000 78.000000 2373
19.344 100.000000 77.000000 2373
19.344 108.000000 78.000000 2373
19.344 130.000000 57.000000 2373
19.344 139.000000 58.000000 2373
19.344 135.000000 57.000000 2373
19.344 152.000000 59.000000 2373
19.344 124.000000 77.000000 2373
19.344 143.000000 58.000000 2373
4.912 30.000000 94.000000 2383
4.912 11.000000 120.000000 2383
4.912 52.000000 88.000000 2383
4.912 115.000000 92.000000 2383
4.912 38.000000 92.000000 2383
4.912 35.000000 98.000000 2383
4.912 119.000000 89.000000 2383
4.912 181.000000 50.000000 2383
57.872 27.000000 151.000000 2390
57.872 40.000000 139.000000 2390
57.872 52.000000 129.000000 2390
57.872 58.000000 123.000000 2390
57.872 92.000000 107.000000 2390
57.872 91.000000 107.000000 2390
57.872 99.000000 104.000000 2390
57.872 136.000000 94.000000 2390
57.872 143.000000 92.000000 2390
57.872 9.000000 171.000000 2390
57.872 45.000000 132.000000 2390
19.598 9.000000 156.000000 2391
19.598 15.000000 144.000000 2391
19.598 24.000000 123.000000 2391
19.598 53.000000 98.000000 2391
19.598 56.000000 97.000000 2391
19.598 69.000000 82.000000 2391
19.598 68.000000 83.000000 2391
19.598 85.000000 81.000000 2391
19.598 91.000000 79.000000 2391
19.598 131.000000 57.000000 2391
19.598 97.000000 80.000000 2391
19.598 35.000000 114.000000 2391
18.124 11.000000 150.000000 2392
18.124 15.000000 142.000000 2392
18.124 36.000000 111.000000 2392
18.124 51.000000 105.000000 2392
18.124 56.000000 103.000000 2392
18.124 69.000000 77.000000 2392
18.124 129.000000 55.000000 2392
18.124 142.000000 56.000000 2392
18.129 261.000000 61.000000 2393
18.129 135.000000 55.000000 2393
18.129 75.000000 76.000000 2393
18.129 36.000000 117.000000 2393
18.129 71.000000 76.000000 2393
18.129 44.000000 108.000000 2393
18.129 18.000000 136.000000 2393
24.560 15.000000 148.000000 2394
24.560 33.000000 122.000000 2394
24.560 39.000000 117.000000 2394
24.560 35.000000 119.000000 2394
24.560 54.000000 102.000000 2394
24.560 60.000000 99.000000 2394
24.560 82.000000 90.000000 2394
24.560 113.000000 62.000000 2394
24.560 118.000000 62.000000 2394
24.560 114.000000 62.000000 2394
24.560 85.000000 91.000000 2394
11.532 139.000000 51.000000 2401
11.532 88.000000 95.000000 2401
11.532 69.000000 97.000000 2401
11.532 85.000000 98.000000 2401
11.532 92.000000 97.000000 2401
11.532 23.000000 119.000000 2401
11.532 47.000000 100.000000 2401
11.532 72.000000 93.000000 2401
11.532 21.000000 122.000000 2401
62.463 133.000000 98.000000 2404
62.463 63.000000 124.000000 2404
62.463 78.000000 117.000000 2404
62.463 23.000000 156.000000 2404
62.463 42.000000 140.000000 2404
62.463 30.000000 147.000000 2404
62.463 62.000000 124.000000 2404
62.463 79.000000 115.000000 2404
17.456 13.000000 142.000000 2423
17.456 33.000000 118.000000 2423
17.456 42.000000 108.000000 2423
17.456 63.000000 101.000000 2423
17.456 84.000000 73.000000 2423
17.456 97.000000 72.000000 2423
17.456 100.000000 72.000000 2423
17.456 109.000000 71.000000 2423
17.456 115.000000 71.000000 2423
17.456 122.000000 71.000000 2423
17.456 127.000000 73.000000 2423
17.456 131.000000 54.000000 2423
17.456 137.000000 54.000000 2423
17.456 142.000000 54.000000 2423
17.456 144.000000 55.000000 2423
17.456 155.000000 55.000000 2423
17.456 72.000000 74.000000 2423
17.456 71.000000 74.000000 2423
17.456 78.000000 74.000000 2423
17.456 80.000000 73.000000 2423
17.456 93.000000 72.000000 2423
17.456 136.000000 54.000000 2423
17.456 136.000000 54.000000 2423
17.456 152.000000 55.000000 2423
17.456 204.000000 58.000000 2423
17.456 184.000000 57.000000 2423
17.456 105.000000 72.000000 2423
17.456 195.000000 58.000000 2423
17.456 153.000000 55.000000 2423
17.944 20.000000 132.000000 2430
17.944 25.000000 126.000000 2430
17.944 76.000000 75.000000 2430
17.944 80.000000 75.000000 2430
17.944 113.000000 73.000000 2430
17.944 116.000000 72.000000 2430
17.944 114.000000 72.000000 2430
17.944 124.000000 72.000000 2430
17.944 137.000000 55.000000 2430
17.944 149.000000 56.000000 2430
17.944 43.000000 108.000000 2430
17.944 77.000000 75.000000 2430
17.944 118.000000 72.000000 2430
17.944 20.000000 133.000000 2430
17.944 95.000000 73.000000 2430
17.944 167.000000 57.000000 2430
17.944 100.000000 73.000000 2430
17.944 142.000000 55.000000 2430
17.944 75.000000 75.000000 2430
27.188 7.000000 166.000000 2435
27.188 25.000000 132.000000 2435
27.188 34.000000 124.000000 2435
27.188 41.000000 119.000000 2435
27.188 40.000000 115.000000 2435
27.188 60.000000 104.000000 2435
27.188 92.000000 91.000000 2435
27.188 101.000000 64.000000 2435
27.188 102.000000 65.000000 2435
27.188 116.000000 65.000000 2435
27.188 115.000000 65.000000 2435
27.188 125.000000 65.000000 2435
27.188 67.000000 99.000000 2435
27.188 97.000000 65.000000 2435
27.188 128.000000 66.000000 2435
21.246 14.000000 146.000000 2443
21.246 35.000000 116.000000 2443
21.246 44.000000 107.000000 2443
21.246 65.000000 91.000000 2443
21.246 70.000000 87.000000 2443
21.246 73.000000 87.000000 2443
21.246 79.000000 85.000000 2443
21.246 82.000000 85.000000 2443
21.246 85.000000 85.000000 2443
21.246 99.000000 82.000000 2443
21.246 109.000000 80.000000 2443
21.246 116.000000 81.000000 2443
21.246 129.000000 59.000000 2443
21.246 132.000000 59.000000 2443
21.246 135.000000 59.000000 2443
21.246 139.000000 59.000000 2443
21.246 142.000000 59.000000 2443
21.246 154.000000 61.000000 2443
21.246 186.000000 62.000000 2443
21.246 146.000000 60.000000 2443
21.246 124.000000 58.000000 2443
35.016 37.000000 125.000000 2453
35.016 38.000000 123.000000 2453
35.016 72.000000 88.000000 2453
35.016 74.000000 86.000000 2453
35.016 93.000000 79.000000 2453
35.016 108.000000 78.000000 2453
35.016 113.000000 77.000000 2453
35.016 134.000000 75.000000 2453
35.016 135.000000 76.000000 2453
35.016 139.000000 75.000000 2453
35.016 147.000000 75.000000 2453
35.016 36.000000 125.000000 2453
35.016 107.000000 78.000000 2453
35.016 121.000000 76.000000 2453
35.016 148.000000 74.000000 2453
23.604 41.000000 111.000000 2471
23.604 40.000000 111.000000 2471
23.604 54.000000 101.000000 2471
23.604 70.000000 93.000000 2471
23.604 98.000000 85.000000 2471
23.604 115.000000 60.000000 2471
16.204 13.000000 141.000000 2472
16.204 34.000000 116.000000 2472
16.204 42.000000 111.000000 2472
16.204 79.000000 70.000000 2472
16.204 84.000000 70.000000 2472
16.204 110.000000 69.000000 2472
16.204 92.000000 69.000000 2472
16.204 142.000000 53.000000 2472
16.204 131.000000 53.000000 2472
16.204 205.000000 56.000000 2472
16.204 64.000000 100.000000 2472
16.204 98.000000 69.000000 2472
16.204 100.000000 69.000000 2472
16.204 115.000000 68.000000 2472
16.204 122.000000 68.000000 2472
16.204 127.000000 68.000000 2472
16.204 137.000000 53.000000 2472
16.204 144.000000 53.000000 2472
16.204 156.000000 54.000000 2472
16.204 72.000000 102.000000 2472
16.204 71.000000 102.000000 2472
16.204 136.000000 53.000000 2472
16.204 152.000000 53.000000 2472
16.204 184.000000 55.000000 2472
16.204 81.000000 70.000000 2472
16.204 105.000000 69.000000 2472
16.204 195.000000 56.000000 2472
16.204 153.000000 53.000000 2472
16.204 206.000000 57.000000 2472
19.305 27.000000 126.000000 2476
19.305 20.000000 135.000000 2476
19.305 81.000000 79.000000 2476
19.305 82.000000 80.000000 2476
19.305 75.000000 79.000000 2476
19.305 75.000000 80.000000 2476
19.305 101.000000 77.000000 2476
19.305 115.000000 78.000000 2476
19.305 114.000000 77.000000 2476
19.305 124.000000 77.000000 2476
19.305 116.000000 76.000000 2476
19.305 131.000000 57.000000 2476
19.305 147.000000 59.000000 2476
19.305 38.000000 112.000000 2476
19.305 51.000000 102.000000 2476
19.305 54.000000 101.000000 2476
19.305 55.000000 101.000000 2476
19.305 73.000000 80.000000 2476
19.305 80.000000 79.000000 2476
19.305 112.000000 76.000000 2476
19.305 114.000000 77.000000 2476
19.305 17.000000 139.000000 2476
19.305 87.000000 78.000000 2476
19.305 89.000000 79.000000 2476
19.305 90.000000 78.000000 2476
19.305 97.000000 77.000000 2476
19.305 168.000000 60.000000 2476
19.305 141.000000 58.000000 2476
19.305 143.000000 58.000000 2476
19.305 52.000000 101.000000 2476
12.550 50.000000 97.000000 2481
12.550 60.000000 98.000000 2481
12.550 80.000000 96.000000 2481
12.550 93.000000 98.000000 2481
12.550 122.000000 68.000000 2481
12.550 109.000000 67.000000 2481
12.550 137.000000 52.000000 2481
12.550 142.000000 52.000000 2481
12.550 106.000000 66.000000 2481
12.550 17.000000 130.000000 2481
12.550 45.000000 106.000000 2481
12.550 55.000000 103.000000 2481
12.550 68.000000 95.000000 2481
12.550 63.000000 98.000000 2481
12.550 62.000000 99.000000 2481
12.550 131.000000 68.000000 2481
12.550 69.000000 94.000000 2481
5.561 33.000000 100.000000 2488
5.561 47.000000 97.000000 2488
5.561 57.000000 88.000000 2488
5.561 68.000000 88.000000 2488
5.561 93.000000 89.000000 2488
5.561 109.000000 89.000000 2488
5.561 118.000000 91.000000 2488
5.561 161.000000 48.000000 2488
25.822 61.000000 102.000000 2491
25.822 101.000000 88.000000 2491
25.822 35.000000 122.000000 2491
25.822 54.000000 104.000000 2491
25.822 84.000000 91.000000 2491
25.822 112.000000 63.000000 2491
26.219 15.000000 151.000000 2498
26.219 27.000000 129.000000 2498
26.219 29.000000 127.000000 2498
26.219 52.000000 109.000000 2498
26.219 71.000000 95.000000 2498
26.219 85.000000 92.000000 2498
26.219 87.000000 91.000000 2498
26.219 137.000000 64.000000 2498
26.219 12.000000 157.000000 2498
26.219 49.000000 110.000000 2498
26.404 35.000000 121.000000 2511
26.404 90.000000 92.000000 2511
26.404 91.000000 92.000000 2511
26.404 102.000000 64.000000 2511
26.404 124.000000 64.000000 2511
26.404 133.000000 64.000000 2511
26.404 135.000000 65.000000 2511
26.404 126.000000 65.000000 2511
26.404 137.000000 65.000000 2511
26.404 143.000000 65.000000 2511
26.404 149.000000 65.000000 2511
26.404 158.000000 66.000000 2511
26.404 172.000000 65.000000 2511
26.404 204.000000 67.000000 2511
26.404 20.000000 144.000000 2511
26.404 55.000000 105.000000 2511
26.404 184.000000 66.000000 2511
26.404 152.000000 65.000000 2511
26.404 159.000000 65.000000 2511
26.404 196.000000 66.000000 2511
26.404 203.000000 66.000000 2511
26.404 219.000000 66.000000 2511
26.404 207.000000 66.000000 2511
26.404 202.000000 66.000000 2511
26.404 172.000000 65.000000 2511
26.404 215.000000 66.000000 2511
26.404 255.000000 67.000000 2511
26.404 280.000000 67.000000 2511
26.404 275.000000 67.000000 2511
26.404 342.000000 68.000000 2511
26.404 316.000000 68.000000 2511
26.404 256.000000 67.000000 2511
26.404 274.000000 67.000000 2511
26.404 300.000000 67.000000 2511
26.404 318.000000 68.000000 2511
26.404 257.000000 67.000000 2511
26.404 242.000000 66.000000 2511
26.404 207.000000 66.000000 2511
26.404 163.000000 65.000000 2511
26.404 239.000000 66.000000 2511
26.404 368.000000 68.000000 2511
21.718 8.000000 161.000000 2517
21.718 32.000000 119.000000 2517
21.718 34.000000 117.000000 2517
21.718 46.000000 106.000000 2517
21.718 52.000000 101.000000 2517
21.718 59.000000 95.000000 2517
21.718 59.000000 95.000000 2517
21.718 97.000000 82.000000 2517
21.718 102.000000 82.000000 2517
21.718 118.000000 59.000000 2517
21.718 127.000000 59.000000 2517
21.718 132.000000 59.000000 2517
21.718 131.000000 60.000000 2517
21.718 59.000000 95.000000 2517
21.718 93.000000 84.000000 2517
21.718 97.000000 83.000000 2517
21.718 107.000000 82.000000 2517
21.718 128.000000 60.000000 2517
21.718 138.000000 60.000000 2517
21.718 96.000000 84.000000 2517
21.718 96.000000 83.000000 2517
21.718 107.000000 82.000000 2517
21.718 128.000000 59.000000 2517
21.487 10.000000 155.000000 2521
21.487 32.000000 118.000000 2521
21.487 34.000000 117.000000 2521
21.487 64.000000 91.000000 2521
21.487 97.000000 83.000000 2521
21.487 99.000000 82.000000 2521
21.487 132.000000 59.000000 2521
21.487 144.000000 60.000000 2521
21.487 37.000000 115.000000 2521
21.487 107.000000 82.000000 2521
17.745 15.000000 142.000000 2523
17.745 25.000000 127.000000 2523
17.745 32.000000 120.000000 2523
17.745 33.000000 119.000000 2523
17.745 51.000000 104.000000 2523
17.745 55.000000 104.000000 2523
17.745 56.000000 99.000000 2523
17.745 67.000000 96.000000 2523
17.745 68.000000 76.000000 2523
17.745 71.000000 75.000000 2523
17.745 84.000000 74.000000 2523
17.745 88.000000 73.000000 2523
17.745 89.000000 73.000000 2523
17.745 128.000000 54.000000 2523
17.745 144.000000 55.000000 2523
17.745 115.000000 74.000000 2523
17.745 137.000000 55.000000 2523
18.100 23.000000 129.000000 2530
18.100 23.000000 129.000000 2530
18.100 104.000000 73.000000 2530
18.100 114.000000 73.000000 2530
18.100 115.000000 73.000000 2530
18.100 124.000000 73.000000 2530
18.100 135.000000 55.000000 2530
18.100 148.000000 56.000000 2530
18.100 41.000000 109.000000 2530
18.100 78.000000 76.000000 2530
18.100 19.000000 135.000000 2530
18.100 93.000000 74.000000 2530
19.807 34.000000 115.000000 2534
19.807 73.000000 83.000000 2534
19.807 71.000000 83.000000 2534
19.807 85.000000 81.000000 2534
19.807 102.000000 78.000000 2534
19.807 131.000000 57.000000 2534
21.720 18.000000 142.000000 2539
21.720 35.000000 118.000000 2539
21.720 41.000000 109.000000 2539
21.720 47.000000 106.000000 2539
21.720 51.000000 101.000000 2539
21.720 47.000000 106.000000 2539
21.720 61.000000 96.000000 2539
21.720 58.000000 95.000000 2539
21.720 25.000000 124.000000 2539
21.720 35.000000 116.000000 2539
21.720 52.000000 101.000000 2539
21.720 79.000000 85.000000 2539
21.720 85.000000 85.000000 2539
21.720 131.000000 59.000000 2539
21.720 57.000000 96.000000 2539
25.051 54.000000 103.000000 2549
25.051 53.000000 104.000000 2549
25.051 54.000000 104.000000 2549
25.051 71.000000 94.000000 2549
25.051 115.000000 62.000000 2549
25.051 126.000000 63.000000 2549
25.051 150.000000 64.000000 2549
25.051 161.000000 64.000000 2549
20.851 37.000000 114.000000 2554
20.851 18.000000 140.000000 2554
20.851 54.000000 99.000000 2554
20.851 13.000000 149.000000 2554
20.851 68.000000 87.000000 2554
20.851 95.000000 81.000000 2554
20.851 102.000000 81.000000 2554
20.851 101.000000 81.000000 2554
20.851 50.000000 103.000000 2554
20.851 94.000000 83.000000 2554
20.851 151.000000 60.000000 2554
20.851 121.000000 58.000000 2554
20.851 37.000000 110.000000 2554
8.367 71.000000 91.000000 2555
8.367 61.000000 91.000000 2555
8.367 42.000000 92.000000 2555
8.367 39.000000 97.000000 2555
8.367 106.000000 90.000000 2555
8.367 108.000000 90.000000 2555
8.367 156.000000 50.000000 2555
11.116 32.000000 104.000000 2556
11.116 48.000000 99.000000 2556
11.116 9.000000 145.000000 2556
11.116 65.000000 100.000000 2556
11.116 90.000000 95.000000 2556
11.116 123.000000 66.000000 2556
11.116 172.000000 54.000000 2556
11.116 172.000000 53.000000 2556
14.452 18.000000 130.000000 2563
